# .PCD v0.7 - Point Cloud Data file format
VERSION 0.7
FIELDS x y z rgb
SIZE 4 4 4 4
TYPE F F F U
COUNT 1 1 1 1
WIDTH 1198
HEIGHT 1
VIEWPOINT 0 0 0 1 0 0 0
POINTS 1198
DATA ascii
-0.27579144 0.059453093 0.89800006 2170413
-0.41177258 -0.35316387 0.90188897 12238537
-0.37160304 -0.38041219 0.90199989 11713733
-0.24262515 -0.36259055 0.90728897 11844292
-0.4586083 -0.33090264 0.94262999 12633808
-0.43168321 -0.31509253 0.9174456 11580352
-0.23925878 -0.32675847 0.91060072 6314341
-0.45297065 -0.29625914 0.93757141 12962774
-0.42596513 -0.29046109 0.91505498 3750468
-0.23045386 -0.28113207 0.91285473 9010817
-0.4037677 -0.18566097 0.91001856 2760236
-0.39018315 -0.18333018 0.90336186 3022635
-0.25088513 -0.15023825 0.90200007 12827080
-0.2377685 -0.16517292 0.90693802 15986161
-0.32150951 -0.11890982 0.91354799 4865871
-0.27689022 -0.13110314 0.91021764 7365236
-0.24587148 -0.14264034 0.90939635 16513531
-0.32461214 -0.082337096 0.93066972 5654875
-0.2608476 0.04242415 0.91387051 2368561
-0.26611775 0.07320033 0.92276055 2171693
-0.25666189 0.10971574 0.9355644 1973800
-0.23666576 0.13452928 0.94381571 1447195
-0.47053242 -0.33506227 0.95100015 12698830
-0.31028199 -0.093952656 0.95100003 13093337
-0.30878714 -0.040906738 0.98668158 4079699
-0.28661373 -0.0082403682 0.98267454 3750221
-0.27776435 0.014286511 0.97252262 3223618
-0.25513366 0.077941522 0.96854794 2171180
-0.23114361 0.08080408 0.98582798 2105132
-0.25240827 0.10422269 0.95405895 2039848
-0.22297931 0.11855675 0.96287102 1908265
-0.19614857 0.13157685 0.95964426 1579041
-0.11402497 0.13680451 0.99799967 1644836
-0.074092485 0.12952739 0.99624085 2629675
-0.033190835 0.11700656 0.99325353 4335409
-0.33453217 -0.10284506 1.0410001 13356253
-0.32189324 -0.072483897 1.0272204 6118514
-0.29536682 -0.055055272 1.0390502 5197157
-0.30222499 -0.035135295 1.0157355 4209745
-0.27624393 -0.0250967 1.0272901 5132136
-0.24868153 -0.003143586 1.0347501 5592691
-0.26051033 0.02142176 1.0125111 3552842
-0.23221235 0.031033359 1.0264763 3948116
-0.19265251 0.047078453 1.0453452 4078419
-0.25495872 0.053687323 1.0020714 2565172
-0.21312602 0.068219513 1.0158585 2631222
-0.17748471 0.078593843 1.0297763 2565941
-0.13159898 0.088941485 1.0396223 3486788
-0.098641232 0.097829133 1.044 2960705
-0.020968257 0.098366387 1.0075001 4926775
-0.20381469 0.11791641 1.0175231 1908008
-0.17509225 0.12184101 1.0191524 2237231
-0.12525401 0.11888358 1.0159782 2566456
-0.079209596 0.11511266 1.0124018 3749188
-0.033166077 0.10714062 1.0031999 4795960
-0.30893609 -0.079779439 1.0612614 12434119
-0.28905556 -0.063650168 1.0571473 12566474
-0.25852644 -0.030341871 1.0776283 11514306
-0.23909183 -0.014637246 1.0666212 15658737
-0.25048396 0.00042402346 1.0530001 5527153
-0.21923968 0.018656544 1.0550967 10263982
-0.18933304 0.039807886 1.0549062 14276317
-0.17031509 0.058896825 1.0512198 6314861
-0.13385805 0.077147648 1.0500001 13089736
0.91690856 -0.10104148 1.3980001 3626070
0.89196956 -0.063007958 1.3977969 2704709
0.90849411 -0.07389088 1.3968617 2836040
0.88813657 -0.024003249 1.394224 2042932
0.90611535 -0.025896071 1.3896813 1779760
0.88215482 0.023894805 1.3876359 197637
0.90434241 0.0076991781 1.3855833 263173
0.87894374 0.074797228 1.3830969 131586
0.8818996 0.12070788 1.3890439 395016
0.848391 -0.11153441 1.4449999 4546410
0.87548006 -0.11931633 1.4217738 4284262
0.90914422 -0.11894061 1.4049801 3692635
0.84748203 -0.063982651 1.441615 3097677
0.87007368 -0.077231728 1.4189236 3165005
0.90429664 -0.094686575 1.404 3099985
0.84443599 -0.020606885 1.4365324 2174521
0.86433613 -0.02781868 1.4153383 2702657
0.84237707 0.014738872 1.4311055 1646119
0.85837054 0.010547841 1.411563 1316896
0.84368092 -0.1165629 1.4744787 4610404
0.85222548 -0.13020296 1.4564286 5403007
0.84292698 -0.074660242 1.4717895 3885396
0.85191375 -0.094896495 1.4510001 3560279
0.83525085 -0.024995096 1.4673952 4674402
0.8308053 0.012832689 1.466903 2105896
0.83612645 -0.12109715 1.502 4937814
1.1256768 -0.81789505 1.7437251 3814711
1.1352475 -0.79176277 1.7479997 2172967
1.1275028 -0.85333276 1.7795 7959408
1.1301932 -0.82367665 1.7734232 4604997
1.1372627 -0.77970135 1.7713673 2371889
1.1396041 -0.86620867 1.8274673 7895161
1.1431662 -0.82190669 1.8227623 3618617
1.1502243 -0.82843065 1.8420001 5920605
1.1465065 -0.78284067 1.8212957 2175023
1.1521361 -0.7668134 1.8283337 2702397
1.1484722 -0.74547142 1.8220001 2768703
1.1521904 -0.74645931 1.8222501 2571323
1.1474144 -0.90515596 1.8886001 8222331
1.1451033 -0.87656438 1.8665 7961211
1.1528184 -0.86558115 1.8845338 8027772
1.1476414 -0.82388687 1.8587857 4738124
1.1531216 -0.82586199 1.8801881 4738380
1.1475899 -0.78511393 1.8533331 2042410
1.1575239 -0.7737509 1.8764266 2505016
1.1882837 -0.26578772 1.8926674 10603483
1.191844 -0.22533946 1.8922143 7051938
1.186533 -0.19482478 1.893 5206652
1.1630924 -0.9160226 1.9339378 7830909
1.1629807 -0.87488884 1.9267461 8159360
1.1654832 -0.82475322 1.9260312 4343111
1.1715164 -0.77169919 1.9280807 2571580
1.1775463 -0.74880946 1.9470001 2837323
1.1966685 -0.41034505 1.9470001 14219519
1.200493 -0.41416952 1.9470001 14219263
1.18905 -0.36811647 1.9295083 14679038
1.190919 -0.32421511 1.9243906 14481662
1.1881007 -0.27743927 1.9220006 11918315
1.1893942 -0.22597991 1.9197732 7379366
1.1923419 -0.19625756 1.9250001 5338750
1.200493 -0.19808771 1.9470001 5272959
1.1718314 -0.95358896 1.9892502 8355205
1.1716704 -0.92472839 1.9756172 8094083
1.1744016 -0.87579364 1.973449 8160646
1.1769334 -0.82407707 1.9735329 3554108
1.1783451 -0.77525282 1.9726574 2439993
1.2072754 -0.77611631 1.9580001 3033158
1.1841255 -0.74942136 1.9653333 2967115
1.1949801 -0.62525368 1.9920001 4613737
1.1955137 -0.5868367 1.9920005 6783618
1.1954372 -0.51545858 1.9797759 12047070
1.2042104 -0.53903008 1.987875 10272711
1.1959562 -0.48050624 1.9844785 13363189
1.203374 -0.46882257 1.9832759 13757690
1.1970044 -0.41977453 1.9759853 14612990
1.2034143 -0.43666339 1.975762 14153214
1.1956555 -0.37692699 1.9740701 15334911
1.1925352 -0.32398883 1.9749181 15334910
1.1948285 -0.27782682 1.9737884 12312559
1.2012812 -0.25935832 1.9878752 10142934
1.1976534 -0.22837302 1.968273 7575722
1.2026583 -0.22106612 1.9834851 7049119
1.2110763 -0.19688348 1.9863335 5272446
1.1786249 -0.96279424 2.0252311 8225415
1.1816134 -0.92646128 2.0205817 8357510
1.186895 -0.87551886 2.0224137 8358022
1.1859233 -0.82522666 2.0203998 3817794
1.1891452 -0.7757892 2.0198705 2966080
1.2017356 -0.75652695 2.0400002 3429963
1.1979094 -0.66169858 2.0292633 3690322
1.2035086 -0.67319095 2.0314288 3624015
1.1965722 -0.62277198 2.023818 4810857
1.202859 -0.6289472 2.0097604 4744294
1.1970975 -0.57675672 2.0228848 8034715
1.205772 -0.5639872 2.0080001 8889770
1.1966785 -0.52474082 2.0220001 11916254
1.2028242 -0.54307103 2.0064001 10272201
1.1967086 -0.47970548 2.0185258 14020603
1.2022173 -0.46014446 2.0230591 14612478
1.1993397 -0.4140633 2.0179999 15597055
1.2033235 -0.42614755 2.0225263 15400190
1.1982932 -0.37257686 2.0177646 16252927
1.2018176 -0.37866715 2.0227692 16121599
1.1976522 -0.32064578 2.0141537 16252671
1.2031046 -0.33422026 2.0308239 16580607
1.1981853 -0.27928287 2.0170908 13167094
1.2023389 -0.26888752 2.0205407 12114409
1.1994776 -0.24668768 2.016 10139341
1.2052175 -0.22380817 2.0205193 7575722
1.2109902 -0.19613682 2.0168574 5731972
1.1915048 -1.002232 2.0900002 8488842
1.1903415 -0.97443813 2.0716672 8226955
1.1931739 -0.92523879 2.0698013 8554888
1.1966578 -0.8772791 2.0668757 8424329
1.2024525 -0.86949223 2.0900002 8555659
1.1960955 -0.82267118 2.0711496 3225656
1.2024524 -0.82638609 2.0900002 5068375
1.1981454 -0.77996498 2.0633073 2900285
1.2042446 -0.76922107 2.0754225 3493961
1.1983278 -0.72808897 2.0680623 3230022
1.2083583 -0.72147125 2.0620883 3164487
1.19943 -0.67986232 2.0688748 3820620
1.2039994 -0.67507172 2.0688605 3821134
1.2050872 -0.62578762 2.0715485 5402224
1.2061788 -0.57552993 2.0702231 9349039
1.2058574 -0.52494055 2.0715003 13165292
1.2090347 -0.47352219 2.0711389 15596542
1.2099419 -0.42424104 2.070282 16449279
1.2106522 -0.37634984 2.0720005 16711679
1.2113069 -0.32571852 2.0706191 16711679
1.2103049 -0.27330565 2.0687788 13100531
1.2106286 -0.2260256 2.0691676 8298932
1.2207197 -0.19723797 2.0791667 6061195
1.1977009 -1.0129209 2.1210001 8554379
1.2023741 -1.009957 2.1315 8489871
1.1982557 -0.97525668 2.1142731 8489869
1.2025774 -0.97348666 2.1267617 8424332
1.1975355 -0.94377881 2.1073999 8555658
1.2048161 -0.92300385 2.1248825 8556173
1.2072772 -0.87533021 2.1205239 8687245
1.2057129 -0.82271349 2.1210706 3554364
1.2088091 -0.77637666 2.1213553 3032130
1.2095839 -0.72388047 2.1202772 3097923
1.2113661 -0.67310369 2.1203992 4347735
1.2152535 -0.62458616 2.1216879 6455425
1.2163749 -0.57367229 2.1223435 11453387
1.2159262 -0.5253638 2.1217496 15070202
1.2177355 -0.47374079 2.121716 16449278
1.2165775 -0.425944 2.1203644 16711679
1.2194909 -0.37324938 2.1220124 16777215
1.2204014 -0.32445771 2.1219671 16711679
1.2202071 -0.2749517 2.1200976 14085368
1.2208008 -0.22279216 2.1220813 8562874
1.2244146 -0.19709617 2.1242223 7771301
1.2122271 -1.0542617 2.197 7766913
1.2095848 -1.0249463 2.1759994 8293516
1.2117369 -0.9757635 2.1767137 8556175
1.2128632 -0.92459303 2.1740682 8687758
1.2179716 -0.8763954 2.1763551 8556944
1.2171712 -0.82451963 2.176122 3949380
1.2200078 -0.77350795 2.1769648 3361609
1.2212043 -0.72572154 2.1748939 3294275
1.2202256 -0.67480671 2.1731305 5270124
1.2252721 -0.62523556 2.1744027 8361882
1.2236174 -0.57623273 2.1725628 13228257
1.2265826 -0.52574176 2.1756175 16317950
1.2273667 -0.47331238 2.1759994 16777215
1.2251958 -0.42598626 2.1731474 16777215
1.2252091 -0.37452871 2.1738994 16777215
1.2292856 -0.3257184 2.1766555 16777215
1.2303793 -0.27464417 2.1776149 13887730
1.2300102 -0.22507355 2.1754992 6914197
1.230304 -0.19674899 2.1670003 5662328
1.2193416 -1.0620346 2.2316959 8292747
1.2206273 -1.0253825 2.2268882 8490125
1.222685 -0.97715086 2.2249227 8818319
1.2225988 -0.92252892 2.2255955 8818321
1.2271541 -0.87503165 2.2278078 8753555
1.2287494 -0.82607669 2.2276046 4277321
1.2277857 -0.77385992 2.2271879 3559244
1.2305429 -0.72500777 2.2262721 4084818
1.2327416 -0.67171699 2.226666 5599091
1.2342877 -0.6246286 2.2255771 10005423
1.2336603 -0.57527143 2.2249992 15331829
1.2370706 -0.52532905 2.2273192 16777215
1.2375921 -0.47541112 2.226604 16777215
1.236937 -0.4264971 2.2268436 16777215
1.2356188 -0.3753995 2.2275426 15528947
1.2373433 -0.32433426 2.2256041 11846857
1.2372979 -0.27534857 2.2242045 8228510
1.2403765 -0.2246186 2.2266738 6778486
1.2394955 -0.1988889 2.2110002 5329998
1.2276213 -1.0716637 2.2737503 8620941
1.2307498 -1.0248162 2.2741253 8424846
1.2343669 -0.9760955 2.2731583 8753042
1.2320145 -0.92436677 2.2713637 8556945
1.2346284 -0.87456757 2.2704289 8622741
1.2345545 -0.82404292 2.2700002 3818307
1.2361345 -0.77408552 2.2717648 3756365
1.2409613 -0.7264272 2.2740541 4412759
1.2418528 -0.67566347 2.2732608 6453115
1.2408937 -0.62558615 2.270612 12109261
1.2419778 -0.57507354 2.2727911 16514558
1.2441841 -0.52462733 2.2725003 16777215
1.2518057 -0.5107556 2.2850001 16777215
1.2441914 -0.47778946 2.2707503 16646143
1.2518057 -0.47484857 2.2850001 16777215
1.2463095 -0.42079651 2.2693481 14279141
1.2518055 -0.42547634 2.2850001 10795707
1.2467526 -0.3781437 2.2720001 7307666
1.2518055 -0.37610415 2.2850001 8031650
1.2462293 -0.32251099 2.2628577 9215146
1.2518055 -0.32673186 2.2850001 9609384
1.2464226 -0.27590689 2.2679315 9281450
1.2518055 -0.27511546 2.2850001 9412523
1.2469394 -0.23774481 2.2647061 8358806
1.2541513 -0.22139609 2.2802632 6119524
1.2641487 0.1445484 2.2850001 8032937
1.2357291 -1.1121321 2.332 8620943
1.2377708 -1.0767252 2.3228579 8489869
1.2416897 -1.0247017 2.3262646 8294802
1.2433931 -0.97796935 2.323041 8688018
1.2435392 -0.9238385 2.3256559 8753812
1.2434586 -0.87648547 2.3243818 8688790
1.2428827 -0.82870501 2.3211768 4870483
1.2527127 -0.8143239 2.3426666 2501677
1.2444907 -0.77344453 2.3086157 3756623
1.2528319 -0.77403587 2.3414545 3493969
1.2463459 -0.72567844 2.3188722 4810604
1.2516652 -0.72326094 2.334667 5008241
1.2464492 -0.67676932 2.3214862 7310484
1.2515 -0.67868656 2.3340003 7771036
1.2454937 -0.63196552 2.3108573 12505046
1.2539098 -0.62480736 2.3379261 14149099
1.2457166 -0.57509941 2.3 16777215
1.2544591 -0.57261461 2.3332002 12569552
1.2472752 -0.5186764 2.3180869 12569296
1.2524093 -0.52693534 2.3311801 9214887
1.2471222 -0.48091426 2.3151999 7898261
1.2531813 -0.47263262 2.3297148 9082787
1.2464696 -0.40342122 2.3000002 9545390
1.2552232 -0.42613432 2.3241322 9017766
1.2464696 -0.38760874 2.3000002 9610154
1.2554408 -0.37397632 2.3251083 9609900
1.2566237 -0.32567668 2.323386 9347498
1.2558538 -0.27459195 2.3237338 9084840
1.2608016 -0.22379074 2.3264005 6120293
1.2701188 -0.174366 2.3443074 5067091
1.2729685 -0.13741852 2.3479998 5065804
1.2712736 0.13744858 2.3340869 6252145
1.2773767 0.16713224 2.3335388 7702168
1.2419685 -1.1214635 2.3756871 8294289
1.2519543 -1.1055049 2.3970001 8490637
1.2464738 -1.0812635 2.3667822 8490639
1.2546222 -1.0700217 2.3913333 8949910
1.2467958 -1.0201083 2.3763239 8819348
1.2526134 -1.0300667 2.3902001 8689042
1.2480758 -0.98034716 2.3690002 8950676
1.2537336 -0.97527629 2.3812859 8885397
1.2486489 -0.9254387 2.3640001 8624023
1.2542092 -0.92598385 2.3871582 8820375
1.2486489 -0.87668127 2.3640001 8886169
1.2564451 -0.87580651 2.3876667 9016984
1.248649 -0.82792383 2.3640001 5923430
1.2572043 -0.82459253 2.3783123 3883331
1.248649 -0.75362682 2.3640001 3688017
1.2574235 -0.77754277 2.3765895 3491144
1.248649 -0.72609711 2.3640001 4410452
1.2572961 -0.72376627 2.3804226 4541265
1.248649 -0.68165159 2.3640001 3619141
1.2571362 -0.67340118 2.3789089 7371136
1.2614063 -0.62238878 2.3776388 7700102
1.2611694 -0.57552779 2.3795609 8820640
1.248649 -0.50055271 2.3640001 9282734
1.2578518 -0.52741849 2.3799114 9674922
1.248649 -0.49126562 2.3640001 9545134
1.259212 -0.47311336 2.3793433 9805994
1.2619468 -0.42652372 2.3775852 9609642
1.2593606 -0.37505764 2.3770661 9413289
1.2634579 -0.32628611 2.3764999 9544106
1.2663223 -0.27561551 2.3797996 9412522
1.2665334 -0.2249517 2.3765345 5790813
1.2666715 -0.17525248 2.3756664 5131855
1.2696389 -0.12249506 2.3729215 5000269
1.2797406 -0.075788304 2.3815243 4868939
1.2869328 -0.028477751 2.3943157 4408387
1.2849758 0.027621543 2.3861556 4672588
1.2828308 0.077926122 2.3763943 4868687
1.2784292 0.12346167 2.3803329 4605254
1.278827 0.17962791 2.3750997 4935509
1.2818173 0.20800197 2.3775003 3618883
1.2462994 -1.1564125 2.4208 8425364
1.2517327 -1.1627307 2.429111 8294032
1.2462519 -1.1348907 2.4218459 8556178
1.254048 -1.1195657 2.4287031 8687503
1.2599511 -1.0757695 2.4302611 8753812
1.2543573 -1.0248007 2.4305954 8885396
1.2614707 -0.97448677 2.4297566 8820375
1.2636728 -0.92534876 2.4280858 8951961
1.2649852 -0.87335283 2.4290235 8951961
1.2656091 -0.82465911 2.4274421 4804435
1.2647645 -0.77454048 2.4250276 6053217
1.2653804 -0.72432953 2.4272225 8688019
1.2686437 -0.67457825 2.4287634 9280673
1.2690338 -0.62489533 2.4283338 9543076
1.2697474 -0.57598329 2.4294548 9543845
1.2691258 -0.52624571 2.4286556 9609642
1.270979 -0.47316805 2.4310002 9545132
1.2709622 -0.42621893 2.4296925 9675434
1.2704546 -0.37377968 2.4299703 9478826
1.2754071 -0.32398024 2.4292107 9544108
1.2763934 -0.27529252 2.4298141 9478315
1.2749288 -0.22489206 2.4276834 5461075
1.2743226 -0.17457907 2.4251955 5066318
1.2748752 -0.12633815 2.4265265 4934734
1.2810185 -0.072872467 2.4271839 4672331
1.2839701 -0.024805991 2.424794 4276291
1.280757 0.025852902 2.4250188 4211009
1.2832638 0.072843544 2.4245782 4342596
1.2815843 0.12455382 2.4306047 3950663
1.2846116 0.17348748 2.431 4080969
1.2836915 0.21311776 2.4280438 2764081
-1.4377106 -1.1792423 2.4840002 9994385
1.259917 -1.17421 2.4788575 8425360
1.2638994 -1.1233652 2.4757502 8753554
1.2676383 -1.0795785 2.4785223 8885140
1.2650044 -1.0206215 2.4746089 8951191
1.2716873 -0.97436947 2.4770772 8886169
1.2752241 -0.92365074 2.4765003 9018269
1.2718855 -0.87450838 2.4758189 9083290
1.2732437 -0.8253653 2.4746902 9149342
1.2764359 -0.77466345 2.4766672 9149599
1.2767926 -0.72607285 2.4787505 9280670
1.2767445 -0.67438835 2.4778428 9346464
1.2765644 -0.6260891 2.4780006 9412772
1.2796464 -0.57498062 2.4780006 9478566
1.2818373 -0.52466464 2.4758184 9544362
1.2797729 -0.47383645 2.477572 9675948
1.2802035 -0.42731562 2.4753916 9806249
1.2830844 -0.37207004 2.4782405 9479083
1.283615 -0.32312024 2.4785461 9544877
1.2824038 -0.27689514 2.4762168 9544367
1.2852671 -0.22615217 2.4754288 5066062
1.2863472 -0.17423207 2.4800632 4934991
1.286334 -0.12584899 2.4753916 4934733
1.2902539 -0.074358128 2.4750004 4803404
1.2896497 -0.023511775 2.4770772 4474180
1.2895558 0.023377445 2.4774008 4150356
1.2934802 0.077181116 2.4757502 3756887
1.2895751 0.12698266 2.4773335 2709085
1.2899333 0.17619114 2.475563 2578014
1.2930857 0.211657 2.4750001 1188651
1.3022736 0.22544694 2.4840002 2172198
-1.4518113 -1.2158815 2.539 10851747
-1.4459414 -1.208241 2.5261998 10785184
1.127082 -1.2195086 2.5389998 7898507
1.1876779 -1.2127641 2.5330002 8359057
1.2245578 -1.2057645 2.5275378 8293522
1.2541351 -1.2026457 2.5232856 8489871
-1.4581341 -1.167679 2.5286674 9998747
-1.443597 -1.1852134 2.5127621 10393247
1.2327787 -1.1948117 2.5335886 8163216
1.2635988 -1.1790392 2.5216434 8294799
-1.4692669 -1.1460592 2.539 9606044
1.2725905 -1.1238221 2.5180004 8819348
1.2763273 -1.078135 2.5206802 8885396
1.2764181 -1.024693 2.5206671 8755352
1.2778344 -0.97462577 2.5170248 8756120
1.2806857 -0.92749679 2.5197446 9018011
1.2756344 -0.87350553 2.5154448 9083546
1.278416 -0.82321471 2.5166528 9214623
1.280848 -0.77668691 2.517976 9346208
1.2819301 -0.72471064 2.5171354 9345951
1.2789738 -0.67475718 2.518676 9412257
1.2825824 -0.62520099 2.5169001 9674917
1.286194 -0.57637697 2.5194521 9675176
1.2879058 -0.52518177 2.5167444 9806763
1.2867552 -0.4750053 2.5222292 9872556
1.2868911 -0.42408118 2.5164754 9676204
1.2874928 -0.3741214 2.5170496 9544876
1.2872626 -0.32618001 2.5185146 9676208
1.2875807 -0.27441084 2.5184708 9478571
1.2921867 -0.2261598 2.5093474 5132110
1.3011844 -0.22590025 2.5389998 5262670
1.2917399 -0.17516184 2.5212128 5261903
1.2931553 -0.12285785 2.5175126 5000268
1.2952626 -0.07731124 2.5105758 4802890
1.3011843 -0.07378725 2.5389998 4868685
1.2948958 -0.028562626 2.5099165 4737611
1.3011844 -0.026407802 2.5389998 4803661
1.2947077 0.024990313 2.5106363 4481639
1.3011843 0.028452618 2.5389998 4483183
1.2958038 0.070148468 2.5042353 3369329
1.3033408 0.076562509 2.5265458 3237229
1.2936743 0.12603033 2.5074284 2645350
1.3028468 0.12404275 2.5389998 2842986
1.2948058 0.1770179 2.5102608 2777453
1.3011844 0.17308465 2.5389998 2975348
1.3011843 0.20051485 2.539 2317671
-1.4555268 -1.2213274 2.5839355 10920623
-1.4479985 -1.2231482 2.5646667 10789035
1.1266979 -1.2216516 2.5774002 6846841
1.1741433 -1.2132121 2.5746598 8097167
1.2041117 -1.2052622 2.5678337 8032399
-1.4643956 -1.1739118 2.5776668 10921649
-1.4476017 -1.1998571 2.5580001 10724268
1.1910863 -1.1972109 2.5866153 8228753
1.2244846 -1.192427 2.5754061 8163729
1.2686441 -1.1769216 2.5721562 8294799
-1.4769397 -1.1278167 2.5751171 10985643
1.2812614 -1.1255983 2.5708694 8622993
-1.4845667 -1.076003 2.5784647 10986668
1.2854832 -1.0759838 2.5721283 8624279
-1.4881569 -1.0250826 2.5848408 11315637
1.2855984 -1.0260684 2.5727496 8886426
-1.5028301 -0.97584158 2.5970001 11120051
-1.4925045 -0.98895496 2.5863123 11577782
1.2863241 -0.97544825 2.573 9083291
1.2861522 -0.92450446 2.5730524 9083291
1.2855953 -0.87509519 2.5726149 9411229
1.2863348 -0.8247537 2.5724325 9411743
1.2923257 -0.77699041 2.5771947 9608609
1.3003008 -0.76414013 2.5970001 9542303
1.2909584 -0.72620374 2.5734863 9346464
1.2876737 -0.6721102 2.57285 9478307
1.2905045 -0.62455457 2.5719075 9675173
1.3003008 -0.60090053 2.5970001 9805989
1.2944134 -0.57534158 2.5651429 10002601
1.3004125 -0.57278746 2.5935454 9937322
1.2937315 -0.52325004 2.5732293 9741484
1.3003008 -0.54988813 2.5970001 10330285
1.293492 -0.47730246 2.5725789 9676203
1.3003008 -0.45806575 2.5970001 9741740
1.2942672 -0.42305502 2.5676057 9610668
1.3003007 -0.42490774 2.5970001 9742254
1.2939775 -0.37695101 2.5684724 9807278
1.3003007 -0.36624345 2.5970001 9873071
1.29561 -0.32318482 2.5675235 9807281
1.3006082 -0.32677504 2.5874999 9872818
1.2952907 -0.28008518 2.5657775 9675693
1.3015013 -0.27003586 2.5844779 8950170
1.2958515 -0.20151861 2.5780001 5262157
1.3053341 -0.22530338 2.5781088 5066318
1.2951937 -0.17476246 2.5666952 5328206
1.3006557 -0.17606159 2.5791998 5262671
1.2958492 -0.12586893 2.5662351 5000527
1.3013457 -0.12656841 2.5746918 5066063
1.2958477 -0.094437957 2.5580001 4934736
1.3035955 -0.074085422 2.5736046 4934733
1.3044814 -0.028133376 2.5723867 4934732
1.3070269 0.023829961 2.5781405 4480868
1.3077012 0.074225038 2.5750196 3236977
1.3097243 0.12310697 2.5731175 2841445
1.3089741 0.17559463 2.5746131 2512998
1.3133013 0.20355535 2.5775001 2052702
-1.4611155 -1.2595911 2.6341434 11314097
1.0975966 -1.2654018 2.6370001 4279377
1.1076243 -1.257797 2.632715 4607309
-1.4588141 -1.2218426 2.6299407 11446710
1.1262965 -1.2298664 2.6292727 6320752
1.169191 -1.2063091 2.6256673 8032399
-1.4658433 -1.1765696 2.6280706 11578553
1.1878989 -1.1925182 2.6265657 8295060
1.221402 -1.1882397 2.6276381 8360339
1.2763296 -1.1786221 2.6295924 8491922
-1.4800332 -1.1261243 2.6281538 11448251
1.2950974 -1.1267395 2.6288188 8492694
1.3047891 -1.1022378 2.6370001 8426131
-1.4911919 -1.0754347 2.6292224 11579835
1.2974086 -1.0694135 2.6276672 8950934
1.3047891 -1.0944681 2.6370001 8820114
-1.5015526 -1.0013485 2.6170001 11644344
-1.4887593 -1.0218748 2.6274543 11711421
1.2963279 -1.0237513 2.6295931 9148570
-1.5091479 -0.96541077 2.6267557 11710394
-1.4929368 -0.98510581 2.6299033 11974337
1.2965825 -0.9775328 2.6300774 9149083
1.3000336 -0.95508385 2.6170001 9345436
-1.5105931 -0.94488579 2.634778 11580091
1.2978408 -0.9247632 2.6295004 9149083
1.303838 -0.93710387 2.6329999 9017499
1.2965654 -0.87585503 2.6286671 9149854
1.3024113 -0.85294008 2.6270001 8953757
1.2980063 -0.82326603 2.6316671 9346978
1.3028867 -0.82259905 2.6290002 9149857
1.2985733 -0.7904132 2.6370001 9805986
1.3025364 -0.77419406 2.627527 9805473
1.302286 -0.72527939 2.6264741 9674915
1.2996093 -0.66713369 2.6369998 9937062
1.3036916 -0.67747873 2.632385 9805733
1.2996093 -0.62828505 2.6370001 9675432
1.3045928 -0.61873323 2.6307504 9805991
1.3065776 -0.57674021 2.6305718 9872299
1.298666 -0.51666486 2.6330001 9807788
1.3019916 -0.52857119 2.6252358 9610922
1.2975881 -0.49014726 2.6284289 10134701
1.3049729 -0.47100723 2.6279097 10069164
1.3051564 -0.42839172 2.6290007 10004399
1.3055009 -0.37371105 2.6291432 9873327
1.3071923 -0.32704198 2.6274767 10134962
1.3071189 -0.27343884 2.6286135 9017246
1.311059 -0.22601491 2.6295929 5328464
1.3074452 -0.17570569 2.6264744 5328976
1.3110732 -0.12446787 2.6279097 5198162
1.312094 -0.0714387 2.6293082 5263184
1.3156259 -0.024784276 2.6310747 4935760
1.3125101 0.022926545 2.6296668 4414560
1.3165489 0.077264957 2.6303339 2643298
1.3201083 0.1234131 2.6295004 1982793
1.3211572 0.17376561 2.6287246 1460306
1.3230454 0.20488119 2.6270001 1657176
-1.4596386 -1.2699963 2.6700003 11642803
1.0969144 -1.2728883 2.6724381 5003352
1.104472 -1.2601773 2.6636004 5266780
-1.4559578 -1.226468 2.6659656 11316920
1.1263858 -1.2320856 2.6656828 6386287
1.1668535 -1.2109121 2.6715007 8359826
-1.4679569 -1.1743035 2.66675 11448251
1.1865008 -1.1910223 2.6703107 8360341
1.2236079 -1.184912 2.6671877 8426132
1.2792332 -1.1783922 2.666707 8361106
1.3045214 -1.1513672 2.6790001 9082780
-1.4847064 -1.1241229 2.6679473 11645886
1.2982115 -1.1436473 2.6580002 8754586
1.3075486 -1.1191958 2.6685007 8558484
-1.50029 -1.096113 2.6790001 11972542
-1.4935291 -1.0734102 2.6654518 11842751
1.2995167 -1.0666366 2.6580002 8885656
1.3052143 -1.0757892 2.6685007 8885656
-1.4876428 -1.0236461 2.6674497 11909314
1.2995167 -1.0248681 2.6580005 9279386
1.3045214 -1.0250719 2.6790004 8886681
-1.5054995 -0.96275395 2.6603336 12170691
-1.4922513 -0.97535187 2.6682765 11910085
1.2984725 -0.97996694 2.6580005 8887194
1.3057109 -0.966142 2.6730006 9018268
-1.5108826 -0.93677282 2.6678438 11843519
-1.4947519 -0.94524902 2.6650002 11975876
1.2995167 -0.90478367 2.6580002 8887968
1.3060548 -0.92678678 2.6694553 9149342
1.2982115 -0.87998366 2.6580005 9084833
1.3045937 -0.86756086 2.6720006 9084832
1.2995167 -0.82646769 2.6580005 9412514
1.3046232 -0.82820272 2.6691184 9346978
1.2995167 -0.79253083 2.6580002 10002341
1.3078144 -0.77065408 2.6647205 9740195
1.3081599 -0.72481149 2.6650004 9740452
1.307506 -0.67698789 2.6675463 9609638
1.3075306 -0.62348521 2.6674507 9676201
1.3081602 -0.57561934 2.6650002 9741482
1.3072695 -0.52549875 2.6674504 10004140
1.3082198 -0.47261226 2.6664004 10069677
1.30923 -0.42308584 2.664392 10069936
1.3082181 -0.374964 2.6655004 9938862
1.3124326 -0.32558477 2.6616528 9807792
1.3127636 -0.27437502 2.6685007 8950941
1.3133379 -0.22578347 2.6645174 5787729
1.3171669 -0.17883083 2.6673341 5722708
1.3194008 -0.12094207 2.6645632 5395027
1.318187 -0.077491283 2.6667507 5198932
1.3184084 -0.023151251 2.6658757 5330262
1.3187127 0.021766281 2.667948 4610910
1.3232495 0.076256223 2.6674507 2644067
1.3240392 0.12414815 2.6664007 2773338
1.3280904 0.17538808 2.6679478 2442834
1.3334666 0.20720987 2.6737502 2440526
-1.4566606 -1.3076841 2.7332222 11250361
-1.4489836 -1.3057104 2.7210002 11186107
1.0968795 -1.3136722 2.7320001 4740439
1.102597 -1.3071954 2.7342002 4872019
-1.4594673 -1.2752745 2.7213314 11579321
-1.4489836 -1.2976933 2.7210002 11512508
1.0973012 -1.2903297 2.7 5001812
1.1070391 -1.2701173 2.7167933 5530975
-1.466354 -1.2238823 2.7255287 11646141
1.1293575 -1.2258891 2.7196128 6386289
1.1598895 -1.2084281 2.709645 8163217
-1.4769337 -1.1746978 2.7248342 11842495
1.1770465 -1.1886168 2.7154903 8360084
1.2250016 -1.1801637 2.7201924 8361620
1.2764884 -1.1840496 2.7215843 8557718
1.3085949 -1.1659766 2.7275484 8689045
-1.5019375 -1.1089908 2.7105 11843008
-1.4875631 -1.1266873 2.7260497 11843521
1.3131055 -1.127298 2.717386 8689815
-1.5018997 -1.0834856 2.7096927 11974595
-1.4881328 -1.0762043 2.7265871 12105668
1.312035 -1.0758032 2.7207315 8951706
-1.4890296 -1.0265981 2.7223475 12171973
1.3138047 -1.0248052 2.7257688 9148827
-1.5032405 -0.96464044 2.7254004 12303558
-1.4950197 -0.97499669 2.7231276 12303303
1.3146523 -0.97459084 2.7248375 9149341
-1.5136043 -0.92419088 2.720418 11909316
-1.4958078 -0.92385185 2.7378094 12304074
1.3142273 -0.9254089 2.7253413 9280927
-1.5167301 -0.874394 2.7276745 6315622
-1.4959006 -0.88217235 2.743 12303558
1.312624 -0.8739565 2.7236214 9346977
-1.5162907 -0.83019692 2.7409372 2235685
1.3160486 -0.82555592 2.7250297 9543844
-1.5137285 -0.77207685 2.7429986 1906721
-1.4968755 -0.780159 2.743 2367018
1.3152474 -0.7740103 2.7223399 9544356
-1.5091913 -0.73871273 2.743 1709852
-1.498415 -0.74513686 2.743 2367013
1.3174067 -0.72766471 2.723 9609638
1.3197466 -0.67373127 2.7226872 9806246
1.3171241 -0.6236735 2.7212567 9807016
1.3185898 -0.57551384 2.7241573 10003882
1.31938 -0.5256781 2.725919 10069421
1.3194268 -0.47430032 2.7256248 10004655
1.319617 -0.42572248 2.720114 10331824
1.3172073 -0.37565082 2.7207103 9938863
1.32702 -0.32549018 2.7268133 10004143
1.3269494 -0.27293962 2.7258933 9015448
1.3248875 -0.22604382 2.7238786 6381409
1.3312292 -0.17437159 2.7263076 6053729
1.33301 -0.12533955 2.7268372 5987423
1.3276715 -0.074439555 2.7206762 6119009
1.3278276 -0.026429495 2.7199395 6119267
1.3314084 0.026850767 2.721303 4610655
1.3336561 0.075954542 2.7224166 3033684
1.3377202 0.12528905 2.7239394 4740190
1.3390945 0.17578053 2.7239752 5660526
1.3354781 0.20790605 2.7162356 5663351
-1.4598838 -1.3196098 2.7765005 11513533
1.1112906 -1.3216875 2.7796364 4741716
-1.4632578 -1.2753727 2.7779379 11580607
1.1190652 -1.2721503 2.7783158 5598570
-1.4663341 -1.225003 2.7762053 11842753
1.1306046 -1.2270987 2.78016 6188138
1.1547403 -1.2059733 2.7765 7966606
-1.4791695 -1.1767925 2.7782254 12040131
1.1718458 -1.1969607 2.7748578 8097424
1.2287459 -1.180741 2.7784173 8754843
1.2764109 -1.1781342 2.7771769 8623768
1.3126713 -1.1682566 2.7765005 8623769
-1.4857576 -1.1263583 2.7798393 11778497
1.3222592 -1.1262506 2.7753501 8755352
-1.4852108 -1.0723532 2.7772193 11975366
1.3221357 -1.0746515 2.7771053 9083802
-1.501776 -1.0154372 2.7880001 12172230
-1.4934328 -1.0255239 2.7745175 12106950
1.3219911 -1.024179 2.7765002 9214621
-1.5044508 -0.97207171 2.7852945 12369609
-1.4978188 -0.97289371 2.7703078 12369096
1.3222592 -0.9738782 2.7753501 9083806
-1.502395 -0.94093448 2.7803335 12238796
-1.4901936 -0.92078543 2.7713249 12501196
1.3230015 -0.92547596 2.7783158 9411999
-1.5063123 -0.85961276 2.7720768 12106431
-1.4877182 -0.8752225 2.7668772 12632524
1.3230015 -0.87347704 2.7783163 9674403
-1.5129334 -0.82378089 2.7722409 7105139
-1.4901108 -0.82199395 2.783401 12763339
1.3270175 -0.82437956 2.7783158 9609380
-1.5137753 -0.77388257 2.7649996 2432809
-1.4884161 -0.77551419 2.7746449 10986669
1.3222952 -0.77604121 2.7765002 9609637
-1.5139133 -0.72272289 2.7800391 2367530
-1.4932758 -0.73315871 2.7790973 8813445
1.3278706 -0.72379732 2.7758949 9741223
-1.5133179 -0.68100971 2.7880015 2104358
-1.4910516 -0.68403792 2.7880008 5790563
1.3297669 -0.67807144 2.7769263 9937830
1.3274447 -0.62333393 2.7764997 9872555
1.3274447 -0.57424957 2.7765002 9873325
1.3274447 -0.52516508 2.7765002 10200493
1.3308449 -0.47565433 2.7825882 10134956
1.3336971 -0.42866209 2.7797856 10070191
1.3346766 -0.37272879 2.7838182 10004656
1.3344823 -0.3247416 2.7771056 10200750
1.3378208 -0.27752146 2.7788002 9476769
1.336274 -0.22509897 2.7771769 7632251
1.3383428 -0.17360419 2.7753501 7434876
1.3386142 -0.12616943 2.7753501 7304314
1.3392708 -0.078521095 2.7772665 7500405
1.3452259 -0.02394224 2.7822502 6975604
1.3436569 0.024357632 2.7758949 5463907
1.3439558 0.076047361 2.7771056 7965590
1.3454559 0.12273753 2.7691817 8031897
1.3521219 0.13255668 2.7880001 8031896
1.3452021 0.17987575 2.7703078 7635087
1.3521218 0.16815341 2.7880001 7833235
1.3438064 0.20563659 2.7765002 5661544
-1.4569354 -1.355321 2.826333 11775423
1.1124932 -1.3549545 2.8248 4871764
-1.4630139 -1.3250641 2.8216972 11514044
1.1198028 -1.321872 2.8239739 5661794
-1.4634043 -1.2735248 2.822979 11711679
1.1332041 -1.2940615 2.8340003 6318448
-1.4688138 -1.2226515 2.820435 12170691
1.1373303 -1.2250086 2.8216155 5991790
1.1650635 -1.2054006 2.8225002 7570825
1.2086717 -1.2025759 2.8110001 8229525
-1.4786158 -1.173285 2.8234746 12105923
1.1821723 -1.1930597 2.8225 8162961
1.2244071 -1.1815649 2.8218484 8557717
1.2742474 -1.1700504 2.8214993 8624027
1.3172539 -1.1670943 2.8227665 8820377
-1.4841019 -1.1262426 2.8260546 11975621
1.3302449 -1.1245108 2.8229601 8952474
-1.4844025 -1.0754094 2.8177946 12106953
1.3294696 -1.0739465 2.8213098 8952474
-1.5052187 -1.0257469 2.8192143 12369097
-1.4892697 -1.0438638 2.8148336 12042444
1.3285108 -1.0233526 2.8192801 9214877
-1.5061129 -0.98465693 2.8110006 12369610
1.3303007 -0.97736013 2.8200004 9084062
1.331768 -0.92422235 2.8257198 9477537
1.3273245 -0.87413448 2.8228281 9478050
1.3316633 -0.82934028 2.8199027 9609637
-1.4913886 -0.75532669 2.8110001 12763854
1.3348026 -0.77206248 2.8245909 9805990
-1.541083 -0.70287156 2.8110001 1775392
-1.4901838 -0.72189057 2.8130288 13158606
1.3373258 -0.72340316 2.8257854 10134184
-1.5536922 -0.65852153 2.8340001 1578521
-1.5235839 -0.65838426 2.8141723 2235172
-1.4867772 -0.67192024 2.8186662 12762309
1.3375413 -0.67134827 2.8257198 9741480
-1.5164703 -0.63824111 2.8193641 2301221
-1.4837414 -0.63807249 2.8141367 11381171
1.3359914 -0.6227777 2.8233845 9872810
1.3345312 -0.57405245 2.8198462 10069421
1.3375165 -0.52750039 2.8225002 10004653
1.3382286 -0.47329339 2.8229599 10266539
1.340469 -0.42696109 2.8202002 10266544
1.3425344 -0.37627178 2.8254812 10135983
1.3400378 -0.32378265 2.8178995 10069934
1.3418208 -0.27499622 2.8203435 9937064
1.3437923 -0.22442208 2.8228705 9870244
1.3448329 -0.17603795 2.8186665 9278109
1.3449732 -0.12707074 2.8189616 9344927
1.3521638 -0.1046275 2.8340001 9408410
1.346683 -0.077717893 2.8167503 8752278
1.3521811 -0.07249663 2.8282499 8818326
1.3467116 -0.045801628 2.8110001 8553101
1.3537476 -0.025055995 2.8257203 8488591
1.3467115 0.028739914 2.8110003 6845556
1.3527516 0.021374438 2.8236501 6976632
1.3466709 0.07710202 2.8192143 6386550
1.3521985 0.07321097 2.8225002 7308686
1.3466544 0.10647609 2.8225002 6056554
1.3553675 0.12532817 2.8233216 7308686
1.3573251 0.17256419 2.8225 7240840
1.3555317 0.20754381 2.8248 2957605
-1.4655242 -1.3662614 2.8740001 11448765
1.1203338 -1.3621045 2.8754547 5200216
-1.4650613 -1.3223667 2.8663087 11777215
1.1246616 -1.322572 2.8709238 6056041
-1.4683515 -1.272908 2.8700004 11908802
1.1397737 -1.2577391 2.8740003 6187370
-1.4728365 -1.2230797 2.8678837 12105670
1.1411128 -1.2310368 2.8706319 6188142
1.1586308 -1.210326 2.8686669 6844530
-1.4750623 -1.1781064 2.8672318 12106694
1.1810986 -1.1899587 2.8735695 8031888
1.223664 -1.1791737 2.8707678 8295061
1.2717657 -1.1682069 2.8713343 8689304
1.3238256 -1.1623981 2.8712423 8755609
-1.4794834 -1.1275973 2.8580005 12172231
1.3376404 -1.1291513 2.8717148 8821403
-1.4826411 -1.0991769 2.858 12369098
1.340705 -1.0787654 2.8727694 8952220
1.3375744 -1.0208989 2.8706319 9018524
1.3409032 -0.97527963 2.8700006 9346208
1.3368413 -0.92517799 2.8705719 9608612
1.3359703 -0.87139577 2.872 9609637
1.3416127 -0.82942635 2.8700001 9675432
1.3524214 -0.81686258 2.8820002 9871526
1.34242 -0.77091426 2.8700004 9740967
1.3438091 -0.72206873 2.8706317 9610408
-1.5781206 -0.65740943 2.8820002 1513242
1.343585 -0.67766649 2.8705223 9676713
-1.5623373 -0.64317721 2.8724 1643803
1.3441246 -0.62608004 2.8707063 10134955
1.3436097 -0.57920265 2.8685002 10004654
1.3524214 -0.55362332 2.8820002 10005933
1.346773 -0.52375031 2.858 10135724
1.3524215 -0.52531797 2.8820002 10135724
1.346773 -0.48276877 2.858 10397871
1.3524215 -0.47436851 2.8820002 10332077
1.346773 -0.43954164 2.858 10201005
1.3547745 -0.42001256 2.8780003 10135470
1.346773 -0.37498158 2.858 10267311
1.3524215 -0.37529996 2.8820002 10267055
1.346773 -0.31884241 2.858 10201009
1.3541199 -0.32887927 2.8820002 10267058
1.346773 -0.27393109 2.858 10793403
1.3524215 -0.27623141 2.8820002 10793403
1.346773 -0.24586147 2.858 11979221
1.356187 -0.22434503 2.8760002 11845836
1.3552346 -0.17360643 2.8700001 11780043
1.3563635 -0.1249883 2.8676 11254724
1.3612825 -0.07499516 2.8717144 10727612
1.3586802 -0.027042558 2.8713338 10923195
1.3600254 0.021733705 2.8700004 6382179
1.3591861 0.071082868 2.8708003 4143673
1.3582979 0.12661634 2.8678186 4474438
1.3625419 0.17413999 2.8666406 4869458
1.3665098 0.20974274 2.8700001 4864572
-1.4543022 -1.4064819 2.9310002 11907009
-1.4642568 -1.3750443 2.9187117 11645631
1.1272885 -1.3809916 2.9091251 5134165
-1.4661702 -1.3238031 2.9174583 11646655
1.1263857 -1.3345491 2.9060001 5663080
-1.4681847 -1.2747604 2.9172747 11778242
1.1399753 -1.2644938 2.9156153 6449259
-1.4709965 -1.2275109 2.9195595 12106181
1.1430504 -1.2363569 2.9147496 6122605
1.1569703 -1.211722 2.9184995 6122603
-1.4778627 -1.1886082 2.9104111 12303046
1.1786197 -1.1878055 2.9192345 7506057
1.2280073 -1.1728692 2.9168692 8557462
1.274532 -1.1612192 2.9136913 8689818
1.320861 -1.1637897 2.9199526 8559513
1.3435359 -1.12841 2.9176662 8755866
1.3523862 -1.1203437 2.9310002 8821405
1.346568 -1.0802783 2.9091251 9149341
1.3530217 -1.0748707 2.9221766 9279645
1.3450649 -1.0175916 2.9159999 9346464
1.3523567 -1.0429542 2.9247503 9214621
1.3446045 -0.97485578 2.9136915 9412258
1.3443527 -0.92391825 2.9157822 9478051
1.3446749 -0.8806746 2.9126663 9216933
1.3523862 -0.86241615 2.9310002 9609641
1.3465692 -0.8258689 2.9095714 9740710
1.3538904 -0.82433277 2.9184997 9740966
1.3459877 -0.77644062 2.9165261 9872553
1.3523368 -0.77805114 2.9205835 9938089
1.3465871 -0.72050482 2.9159999 10069418
1.3523309 -0.72822082 2.9193335 9807531
-1.5931652 -0.65527308 2.9060001 1447448
1.3449515 -0.6778596 2.9143329 10265767
1.352312 -0.66452223 2.915375 9872808
-1.5840321 -0.64385664 2.9060001 1578265
1.3465592 -0.61959678 2.9060001 9807784
1.3538452 -0.63017583 2.9191577 10004140
1.3465592 -0.57764149 2.9060001 10266540
1.3540972 -0.57250464 2.9194613 10135980
1.3589315 -0.52642965 2.9208145 10201262
1.3574616 -0.47473183 2.920285 10529201
1.3571531 -0.42590547 2.9184995 10267057
1.3576527 -0.37418738 2.9176066 10201777
1.3602036 -0.32520127 2.9208145 10463669
1.3600845 -0.27532655 2.9233072 10464697
1.3617828 -0.22496328 2.9146533 11584464
1.3622237 -0.17541425 2.9146533 11978196
1.3675652 -0.12587383 2.9192808 11912660
1.3678092 -0.073292419 2.9161847 11780560
1.3628269 -0.024592323 2.9164162 11254729
1.3664981 0.025287544 2.9192345 7040626
1.3674328 0.075381935 2.9149995 4671814
1.3660488 0.12994432 2.9184995 5528409
1.367332 0.17421274 2.9163442 5460822
1.3749435 0.21173178 2.9216251 4144443
-1.455979 -1.4154098 2.9703 11973314
-1.4472475 -1.4187164 2.9782856 11646400
1.1432775 -1.4184785 2.9560001 5067857
-1.4572691 -1.3750818 2.9664004 11843009
-1.4473914 -1.3840952 2.9820001 11908804
1.1345679 -1.3517047 2.9560001 4150090
-1.460883 -1.3244853 2.967819 11712449
1.1345679 -1.3458983 2.9560001 6188905
1.1591909 -1.305019 2.9820001 6384238
-1.4620172 -1.2773273 2.9668341 11778499
1.1445282 -1.2681508 2.95925 6187882
1.1533333 -1.2698741 2.9820001 6253418
-1.4627731 -1.2329299 2.9591205 11975363
1.1485479 -1.235311 2.9646666 6188142
1.1574605 -1.218163 2.9715998 6188141
1.1806186 -1.1872979 2.9680715 7176579
1.2243925 -1.1766137 2.9701149 8295317
1.2734549 -1.1594427 2.9722507 8689304
1.3230722 -1.1569307 2.9678185 8952477
1.3434825 -1.1374763 2.9655793 9018013
1.3555224 -1.113439 2.9728231 9018270
1.3602209 -1.0743986 2.9733331 9280158
1.3589755 -1.0280651 2.9743526 9084575
1.3553268 -0.97272766 2.9689999 9609122
1.3582735 -0.93211639 2.9716001 9348004
1.360433 -0.87431031 2.9689999 9609896
1.3613772 -0.82763517 2.9715998 9675942
1.3551867 -0.77238667 2.9696188 10004137
1.3556056 -0.72687614 2.9677 10266027
1.3573259 -0.67461276 2.9660001 10201004
1.3670186 -0.62814629 2.9711666 10070443
1.3607783 -0.57328969 2.9673748 10463918
1.369051 -0.53047812 2.9720001 10070449
1.3648038 -0.47592309 2.9690001 10529971
1.3616097 -0.42657831 2.9683158 10922420
1.3663026 -0.37795049 2.969619 10463666
1.3668102 -0.32393166 2.968235 10398389
1.371347 -0.27802002 2.9759996 10267061
1.3719386 -0.2280595 2.9652858 10266806
1.3725593 -0.16906595 2.9660001 10463158
1.3783234 -0.12227146 2.9778943 10136506
1.3788382 -0.076005258 2.9697647 10531519
1.3728228 -0.025048222 2.9689999 9676210
1.37878 0.022280553 2.9768002 9083042
1.377763 0.077751383 2.9652851 8161421
1.3806405 0.12137187 2.9772727 8226193
1.3793747 0.17899629 2.9720001 7831947
1.3839793 0.2214859 2.9697645 3749430
-1.4552313 -1.4563878 3.0350001 11975364
-1.4462888 -1.4563878 3.0350001 12564934
-1.4546666 -1.4261427 3.0214999 11777987
-1.4469239 -1.4262882 3.0260003 11842754
1.1574807 -1.4404773 3.0080001 5395027
-1.4558283 -1.3730797 3.0185654 11843522
-1.4477458 -1.378443 3.0239546 11712450
-1.4588816 -1.3243661 3.0189474 11844034
-1.4476457 -1.329565 3.0287693 12106180
1.1587293 -1.3177238 3.0183845 6253933
-1.4597752 -1.2819848 3.0158396 11844547
1.1549268 -1.2742825 3.0182855 6188142
1.1628538 -1.2209965 3.0181253 6318442
1.1857815 -1.1815691 3.0179489 7437183
1.2255781 -1.1683193 3.0168283 8294291
1.2686149 -1.1574972 3.0143008 8689306
1.3242253 -1.1539838 3.0124998 9017501
1.2815857 -1.1463647 3.0255499 8755357
1.3307121 -1.1446545 3.0263605 9017759
1.3598403 -1.1222105 3.0220006 9018013
1.3663946 -1.074594 3.0252805 9345950
1.3668545 -1.0212154 3.0242004 9150370
1.3658202 -0.97489083 3.0260007 9216930
1.3689551 -0.92519069 3.0219665 9478821
1.3715707 -0.87485063 3.024616 9872809
1.36941 -0.82529664 3.0226252 9872808
1.361847 -0.77736962 3.0197392 10004137
1.3656628 -0.72634691 3.0179472 10201261
1.3705978 -0.67307609 3.020462 10397870
1.3737928 -0.62687212 3.0193236 10267310
1.3727484 -0.57193106 3.024435 10595506
1.3780968 -0.52501613 3.0215008 10399157
1.3732603 -0.47490108 3.0230007 10530228
1.370378 -0.42412066 3.0209603 10726323
1.3765941 -0.3746528 3.0250006 10660275
1.3758197 -0.32315171 3.0198803 10201779
1.3785732 -0.27327222 3.0219665 10135729
1.3836684 -0.22483844 3.0233009 10134705
1.3844259 -0.17722245 3.0215008 9807023
1.3806026 -0.12419352 3.0183852 9609646
1.3884194 -0.075001732 3.0215006 9543853
1.3843937 -0.024618613 3.0256088 9018021
1.3894728 0.024237024 3.0237503 8820384
1.3914263 0.075085327 3.0201497 8557213
1.3903985 0.12460065 3.0239546 8292242
1.3905962 0.17537479 3.0256088 7765902
1.3893453 0.22610123 3.0182421 3552052
1.4030064 0.24750914 3.0215001 3023395
1.394411 0.25160912 3.0350001 2499364
1.4033535 0.25160912 3.0350001 3087908
-1.4523983 -1.4646634 3.0806668 11843781
-1.4425267 -1.4728141 3.0813849 12105669
1.1791226 -1.4684752 3.0760002 5197905
-1.4529043 -1.424824 3.0806658 11712193
-1.452814 -1.3747917 3.0724995 11909314
-1.4439231 -1.3652619 3.0813849 12106179
-1.4548262 -1.3197747 3.0696363 12106438
-1.4422563 -1.3340545 3.0725002 12040902
1.1657939 -1.3231515 3.0704002 6253933
-1.4621626 -1.2939175 3.062 12040645
1.1627697 -1.2819144 3.0777502 6123117
1.1798927 -1.2226068 3.0806668 6253418
1.1876047 -1.1839581 3.069778 6516338
1.2234662 -1.1645344 3.0745509 8097937
1.2696396 -1.1564115 3.0780001 8688793
1.2891309 -1.1458694 3.0721819 8689820
1.327167 -1.1422105 3.0778904 9083294
1.3659565 -1.1279736 3.0806651 9084063
1.3734242 -1.0768971 3.0772727 9281442
1.3733311 -1.0266349 3.0746002 9346978
1.3743941 -0.97411817 3.0760002 9413797
1.379819 -0.92427462 3.0769336 9545126
1.3800027 -0.87485647 3.0760002 9938602
1.3761619 -0.82950485 3.0750668 10069929
1.3760027 -0.7755487 3.0775557 10200745
1.3800027 -0.72380322 3.0760002 10267312
1.3800027 -0.67546618 3.0760002 10594735
1.3847301 -0.62645453 3.0775557 10530225
1.3864164 -0.57189775 3.0867062 10792114
1.3856053 -0.52670872 3.0782108 10595764
1.3864722 -0.48150831 3.0806668 10530484
1.3787488 -0.42233488 3.0706155 10661300
1.3875115 -0.37491626 3.0788002 10660532
1.3869478 -0.32222471 3.0780003 10332339
1.3858513 -0.27519718 3.0751767 10135472
1.3920867 -0.22534125 3.0760002 10069170
1.3922817 -0.17544492 3.0768237 9675180
1.3918917 -0.1241843 3.0751767 9608874
1.3943518 -0.079297274 3.0670907 9412008
1.4014714 -0.071591273 3.0900002 9412008
1.390777 -0.03685965 3.062 9214628
1.4014715 -0.024045842 3.0900002 9148324
1.3947867 0.010254957 3.062 8951458
1.4043723 0.030293757 3.0844002 9016224
1.4043959 0.075385161 3.0769336 8491164
1.4057031 0.12454095 3.0823638 8292242
1.3947867 0.19069389 3.062 7634314
1.4032426 0.17052372 3.0847502 7766415
1.3947867 0.22678167 3.062 3748922
1.4014714 0.22278579 3.0900002 4407624
1.4008013 0.25384748 3.062 2565157
-1.4251385 -1.5077287 3.1469996 12368330
-1.3945739 -1.5132234 3.1470001 12172234
-1.3358488 -1.5132234 3.1470001 12304336
-1.0638586 -1.5132233 3.1470001 13028057
-1.0278929 -1.5115376 3.1469996 12896984
-0.90622795 -1.5132234 3.1470001 13485017
-0.8740837 -1.5119872 3.1469998 13093593
-0.8227765 -1.5132233 3.1470001 13422556
-0.69296294 -1.5132234 3.1470001 13292250
-0.57860345 -1.5132234 3.1470001 13618650
1.1986049 -1.5070418 3.1470001 4936276
-1.4548781 -1.4611701 3.118 11909061
-1.4380889 -1.4763479 3.1346478 11843779
1.1936842 -1.4870296 3.118 5394512
-1.4545853 -1.4263282 3.1252501 11843777
-1.4440491 -1.4246436 3.1347311 11778242
-1.4523846 -1.3792789 3.1238 11975106
-1.4404864 -1.3739603 3.1345716 11843264
1.1799963 -1.3639781 3.1325002 6121060
-1.4586463 -1.3357871 3.1266999 12171204
-1.4440045 -1.345001 3.1296 11843265
1.1759907 -1.3325528 3.118 6187885
1.1830877 -1.2737422 3.1341109 6056812
1.1875488 -1.2251664 3.1265295 6252907
1.195762 -1.1875726 3.1246922 6385005
1.2259381 -1.1643704 3.1302435 7965070
1.2716901 -1.1562783 3.1260002 8557720
1.3100523 -1.150175 3.118 8821401
1.2411891 -1.1437016 3.1469998 8425108
1.2775899 -1.1436085 3.1443634 8361624
1.3259112 -1.1378071 3.1336761 8821663
1.3672215 -1.1213411 3.1279423 9149856
1.3803161 -1.0757297 3.1325002 9346464
1.3823044 -1.0230023 3.13076 9347235
1.387018 -0.97010303 3.1318095 9740967
1.3868768 -0.92475349 3.1324997 9937831
1.3867589 -0.87470502 3.1311817 10003882
1.382742 -0.82363886 3.1300838 10070188
1.3861651 -0.77311873 3.1339996 10398125
1.3892118 -0.72639114 3.1319196 10464176
1.3886119 -0.67580336 3.1288745 10726321
1.3937951 -0.6247198 3.1285455 10530482
1.3933501 -0.57920343 3.1308889 10857906
1.3936158 -0.52369088 3.1280868 10923957
1.3941973 -0.47304431 3.1306086 10662070
1.4025975 -0.48707876 3.1470001 10203574
1.3941561 -0.42416725 3.1317368 10727350
1.4025975 -0.43144432 3.1470001 10727607
1.3961065 -0.37406418 3.1324999 10726581
1.4024622 -0.36958247 3.1411998 10661302
1.3947357 -0.3238132 3.1286843 10528945
1.4024624 -0.33312812 3.1412001 10528946
1.3950989 -0.27110386 3.1262858 10200751
1.4025975 -0.27587423 3.1470001 10266287
1.3960882 -0.22488761 3.1316471 9937838
1.4022397 -0.22488762 3.1316471 10003375
1.3961065 -0.17410229 3.1324999 9740457
1.4022596 -0.17410229 3.1324999 9674922
1.3961065 -0.12751241 3.1324999 9412008
1.4026431 -0.12363871 3.1333528 9477543
1.4051555 -0.074450925 3.1334665 9149092
1.4053363 -0.026427606 3.1325002 8951713
1.4104899 0.023620944 3.1334665 8819615
1.4116348 0.07486213 3.1306877 8425113
1.4115114 0.12579858 3.1333528 8095890
1.4079744 0.17809699 3.1336153 7634825
1.4096133 0.22370833 3.1331904 4408652
1.4162126 0.25644851 3.118 2433314
-1.4158232 -1.5118114 3.1760001 12106699
-1.3779336 -1.5203624 3.1759996 12499916
-1.3265074 -1.5212964 3.1759999 12499917
-1.2739198 -1.5221771 3.1759996 12697294
-1.228735 -1.5218207 3.1759996 12828881
-1.1801976 -1.5247686 3.1760001 12764115
-1.12272 -1.5209293 3.1759996 12698576
-1.0782965 -1.513087 3.1760008 12765139
-1.0261798 -1.5164236 3.1759996 13028054
-0.97919261 -1.5218207 3.1759996 13158871
-0.92535472 -1.5189445 3.1759996 13094104
-0.88061357 -1.5157305 3.1759996 13290969
-0.82758576 -1.5209295 3.1759996 13488605
-0.78000438 -1.5244943 3.1760001 13619422
-0.72469288 -1.5236589 3.1759999 13619677
-0.67843121 -1.5227644 3.1759999 13619420
-0.62668782 -1.5234982 3.1759999 13619421
-0.57925642 -1.5209293 3.1759999 13619676
-0.53194743 -1.5250887 3.1760004 13619677
-0.47428071 -1.5247687 3.1760001 13422812
-0.43157056 -1.5247686 3.1760001 13554398
-0.37583491 -1.527168 3.1760004 13553627
-0.32503521 -1.527168 3.1760004 13094873
-0.27200747 -1.527168 3.1760004 13027540
-0.21793997 -1.5250884 3.1760004 12765395
-0.17219055 -1.527168 3.1760004 12699346
-0.12228208 -1.527168 3.1760004 12567503
-0.072373599 -1.527168 3.1760004 12435147
0.043039728 -1.5271679 3.1759999 11580860
0.077351809 -1.527168 3.1760004 11646142
0.1085446 -1.5271679 3.1760001 11384253
0.21771936 -1.5271679 3.1759999 10530486
0.28634351 -1.5271679 3.1760001 10396594
0.32689416 -1.527168 3.1760004 10264492
0.35496765 -1.5271679 3.1760001 9870245
0.53900516 -1.5271679 3.1760001 8621976
0.57643646 -1.527168 3.1760004 8424087
0.61698717 -1.5271679 3.1759999 8226709
0.68561125 -1.5271679 3.1760001 8028554
1.2034116 -1.5240487 3.1760001 4936535
-1.4351702 -1.4739759 3.1759996 11844290
-1.4542143 -1.4367089 3.1760001 11385542
-1.4404236 -1.4217691 3.1759996 11646915
-1.4330032 -1.3781912 3.1760001 11974339
1.1909345 -1.3587269 3.1760001 6252649
1.1971731 -1.2589098 3.1759999 6122350
1.1971731 -1.2308364 3.1760004 5925482
1.2034116 -1.2058822 3.1760001 6252647
1.2264942 -1.1647077 3.1760004 7636618
1.2424026 -1.1450562 3.1760001 8425108
1.2798339 -1.1403772 3.1759999 8688535
1.3250636 -1.1364784 3.1759999 8821662
1.3699332 -1.1231015 3.1760001 9149600
1.3864094 -1.0738328 3.1760004 9412000
1.391816 -1.0305787 3.1760001 9543843
1.3950244 -0.97639233 3.1760004 9610407
1.3905685 -0.92514694 3.1760004 10134441
1.3905684 -0.87711012 3.1760001 10462636
1.3905685 -0.82533008 3.1760004 10004653
